ply
format ascii 1.0
element vertex 856
property float x
property float y
property float z
property float nx
property float ny
property float nz
end_header
0.184527 0.074080 0.456127 0.249151 0.923870 -0.290497
0.192493 0.072523 0.457102 0.205442 0.939803 -0.273063
0.200495 0.071212 0.458084 0.179177 0.949734 -0.256710
0.208510 0.070048 0.459073 -0.158770 -0.956489 0.244789
0.216553 0.069076 0.460071 -0.141970 -0.962414 0.231525
0.224588 0.068059 0.461066 -0.138002 -0.966235 0.217590
0.232635 0.067154 0.462064 -0.128691 -0.971124 0.200891
0.240674 0.066201 0.463060 -0.124156 -0.975851 0.179723
0.248730 0.065366 0.464062 -0.121439 -0.979569 0.160303
0.256770 0.064413 0.465059 -0.118487 -0.982999 0.140261
0.264821 0.063575 0.466057 -0.119933 -0.984138 0.130723
0.272862 0.062653 0.467054 0.123374 0.984065 -0.128043
0.280923 0.061886 0.468058 0.118376 0.984989 -0.125632
0.288973 0.061026 0.469058 0.131028 0.983633 -0.123681
0.296994 0.060015 0.470050 0.149179 0.980228 -0.129996
0.305000 0.058892 0.471041 0.153564 0.978504 -0.137648
0.313011 0.057851 0.472030 0.157496 0.976020 -0.150264
0.321005 0.056687 0.473013 0.166261 0.972523 -0.162963
0.328993 0.055504 0.474002 0.164767 0.971201 -0.172107
0.336995 0.054390 0.474986 0.163250 0.971545 -0.171611
0.344973 0.053198 0.475969 0.160998 0.972523 -0.168160
0.352962 0.052035 0.476955 0.156155 0.974587 -0.160613
0.360957 0.050954 0.477942 -0.127416 -0.981169 0.145165
0.368987 0.050059 0.478941 -0.102789 -0.986520 0.127328
0.377040 0.049326 0.479946 -0.080909 -0.990848 0.108051
0.385131 0.048790 0.480954 -0.059405 -0.994319 0.088322
0.393237 0.048373 0.481973 -0.070938 -0.994062 0.082513
0.401350 0.047967 0.482989 -0.056142 -0.996729 0.058129
0.409495 0.047735 0.484019 0.014530 0.999588 -0.024771
0.417696 0.047801 0.485056 0.016679 -0.999804 -0.010702
0.425911 0.047938 0.486104 -0.014107 0.998661 0.049766
0.434111 0.047977 0.487144 0.027126 -0.996385 -0.080502
0.442338 0.048154 0.488190 0.039919 -0.994117 -0.100683
0.450598 0.048485 0.489242 0.055013 -0.992458 -0.109544
0.458884 0.048941 0.490304 0.097345 -0.986497 -0.131713
0.467248 0.049774 0.491383 0.099739 -0.982816 -0.155320
0.475564 0.050345 0.492448 0.131093 -0.976400 -0.171633
0.484026 0.051621 0.493549 0.192047 -0.963204 -0.188035
0.492600 0.053453 0.494677 0.234844 -0.955557 -0.178211
0.501251 0.055625 0.495827 0.276103 -0.948027 -0.158149
0.510022 0.058317 0.496999 0.316278 -0.937558 -0.144753
0.518871 0.061361 0.498187 0.331398 -0.933499 -0.136946
0.527736 0.064416 0.499386 0.360459 -0.922964 -0.134932
0.536722 0.067978 0.500603 -0.397416 0.907466 0.136255
-0.613165 -0.003982 0.361246 0.648957 0.128447 -0.749904
-0.603423 -0.056306 0.361178 -0.614055 -0.291462 0.733476
-0.595138 -0.071428 0.361855 0.511953 0.278093 -0.812754
-0.586989 -0.083956 0.362576 0.493611 0.319044 -0.809049
-0.579005 -0.092449 0.363378 -0.466456 -0.358812 0.808500
-0.571053 -0.100779 0.364179 -0.449678 -0.378449 0.809053
-0.563179 -0.107284 0.365016 -0.452390 -0.372008 0.810527
-0.555278 -0.115582 0.365808 0.497523 0.348562 -0.794339
-0.547325 -0.127042 0.366533 -0.510068 -0.315028 0.800367
-0.539467 -0.136026 0.367305 -0.414640 -0.371567 0.830669
-0.531685 -0.142713 0.368127 0.304042 0.424561 -0.852823
-0.524013 -0.144691 0.369048 0.319328 0.446735 -0.835737
-0.516321 -0.148282 0.369936 -0.379769 -0.451712 0.807299
-0.508549 -0.157503 0.370692 -0.336255 -0.417887 0.843981
-0.500897 -0.160100 0.371596 -0.276752 -0.502781 0.818914
-0.493261 -0.162156 0.372513 -0.255198 -0.471381 0.844200
-0.485615 -0.165775 0.373394 -0.363195 -0.363028 0.858079
-0.477912 -0.176721 0.374097 0.408586 0.375829 -0.831751
-0.470294 -0.181081 0.374955 -0.382530 -0.468673 0.796251
-0.462678 -0.187014 0.375771 -0.323074 -0.478355 0.816578
-0.455089 -0.190349 0.376652 -0.214565 -0.535843 0.816599
-0.447520 -0.191801 0.377577 -0.083911 -0.617738 0.781895
-0.439948 -0.191694 0.378541 0.058116 0.612020 -0.788704
-0.432375 -0.189796 0.379544 -0.019245 -0.563075 0.826181
-0.424795 -0.187258 0.380572 -0.088709 -0.499790 0.861592
-0.417227 -0.190327 0.381453 -0.093433 -0.453443 0.886374
-0.409646 -0.190085 0.382422 -0.076531 -0.482714 0.872428
-0.402040 -0.186973 0.383465 0.057899 -0.516010 0.854624
-0.394419 -0.183709 0.384509 0.154459 -0.549092 0.821365
-0.386780 -0.179635 0.385582 0.241201 -0.558412 0.793725
-0.379087 -0.172921 0.386723 0.403787 -0.501081 0.765423
-0.371337 -0.163964 0.387929 -0.293711 0.354218 -0.887842
-0.363486 -0.150821 0.389251 0.377456 -0.324762 0.867212
-0.355444 -0.129689 0.390800 0.497241 -0.254432 0.829467
0.066074 0.200405 0.452466 0.836338 0.186604 -0.515479
0.071852 0.175937 0.452590 0.828723 0.272778 -0.488683
0.078292 0.158465 0.452973 0.787942 0.340525 -0.513021
0.085191 0.145694 0.453530 0.755395 0.430267 -0.494215
0.092282 0.135026 0.454162 0.727892 0.480176 -0.489494
0.099438 0.125262 0.454829 -0.701577 -0.515166 0.492335
0.106693 0.116632 0.455531 -0.665232 -0.566071 0.486857
0.114063 0.109204 0.456284 -0.618970 -0.619198 0.483187
0.121551 0.103029 0.457079 -0.560221 -0.673066 0.482841
0.129158 0.097976 0.457916 -0.506268 -0.724049 0.468449
0.136817 0.093501 0.458778 -0.460690 -0.761815 0.455416
0.144549 0.089713 0.459663 0.404332 0.805182 -0.433818
0.152362 0.086654 0.460578 -0.360108 -0.838349 0.409259
0.160208 0.083944 0.461504 -0.325242 -0.860865 0.391316
0.168096 0.081613 0.462449 -0.298828 -0.877845 0.374286
0.175989 0.079351 0.463394 -0.288473 -0.889604 0.354102
0.183892 0.077235 0.464342 0.272440 0.898936 -0.343059
0.191824 0.075347 0.465302 0.236903 0.915960 -0.323875
0.199789 0.073755 0.466270 0.204106 0.931816 -0.300099
0.207792 0.072452 0.467251 0.179631 0.942296 -0.282508
0.215809 0.071302 0.468240 -0.166470 -0.949124 0.267306
0.223832 0.070168 0.469228 -0.154860 -0.956564 0.246991
0.231851 0.069068 0.470219 -0.151634 -0.961583 0.228832
0.239879 0.067993 0.471208 -0.144434 -0.966343 0.212886
0.247907 0.066950 0.472200 -0.143598 -0.969712 0.197580
0.255931 0.065911 0.473196 -0.134264 -0.974048 0.182215
0.263978 0.065006 0.474194 -0.129793 -0.975794 0.176013
0.272020 0.064088 0.475187 -0.125219 -0.977562 0.169389
0.280063 0.063193 0.476188 -0.126784 -0.978765 0.161071
0.288099 0.062252 0.477182 0.133670 0.978693 -0.155861
0.296140 0.061334 0.478181 0.141828 0.977317 -0.157277
0.304162 0.060310 0.479170 0.147653 0.975240 -0.164639
0.312185 0.059324 0.480162 0.145522 0.974877 -0.168638
0.320202 0.058301 0.481155 -0.153141 -0.972320 0.176471
0.328211 0.057223 0.482143 0.166968 0.967394 -0.190445
0.336185 0.055963 0.483121 0.170176 0.966557 -0.191855
0.344174 0.054796 0.484108 0.165224 0.967447 -0.191693
0.352172 0.053696 0.485095 0.162877 0.966473 -0.198499
0.360166 0.052583 0.486080 -0.145363 -0.969815 0.195776
0.368179 0.051578 0.487071 -0.129401 -0.974008 0.185916
0.376204 0.050683 0.488066 -0.111420 -0.979128 0.169985
0.384249 0.049896 0.489068 -0.093407 -0.984960 0.145360
0.392324 0.049250 0.490074 -0.077109 -0.988834 0.127517
0.400415 0.048742 0.491089 -0.059252 -0.991525 0.115620
0.408531 0.048337 0.492105 -0.068357 -0.991063 0.114547
0.416664 0.048039 0.493128 -0.055169 -0.995304 0.079545
0.424816 0.047833 0.494157 -0.042977 -0.997963 0.047144
0.432967 0.047619 0.495186 0.013312 0.999868 -0.009297
0.441172 0.047684 0.496229 0.009581 -0.999895 -0.010847
0.449392 0.047820 0.497277 0.026924 -0.999290 -0.026362
0.457650 0.048126 0.498332 0.048210 -0.997782 -0.045894
0.465936 0.048586 0.499392 0.075571 -0.995292 -0.060693
0.474274 0.049281 0.500464 0.100775 -0.991880 -0.077570
0.482687 0.050328 0.501561 0.163352 -0.983824 -0.073534
0.491237 0.052062 0.502686 0.229860 -0.969849 -0.080976
0.499914 0.054377 0.503847 0.271953 -0.960117 -0.064942
0.508681 0.057064 0.505023 0.300905 -0.951142 -0.069172
0.517470 0.059845 0.506208 0.321346 -0.943829 -0.076969
0.526332 0.062907 0.507406 0.354896 -0.930068 -0.094986
0.535326 0.066542 0.508638 -0.384036 0.920246 0.075254
-0.596943 -0.045684 0.370177 -0.459544 -0.268241 0.846679
-0.588789 -0.057034 0.370908 -0.459544 -0.268241 0.846679
-0.580735 -0.066255 0.371686 -0.462039 -0.274722 0.843236
-0.572596 -0.079431 0.372365 -0.443569 -0.305370 0.842613
-0.564625 -0.088024 0.373150 -0.418056 -0.340314 0.842268
-0.556726 -0.094914 0.373968 -0.442163 -0.357675 0.822533
-0.548782 -0.104622 0.374717 -0.459219 -0.348414 0.817145
-0.540924 -0.111917 0.375522 -0.400830 -0.351333 0.846109
-0.533135 -0.117051 0.376374 -0.367530 -0.343088 0.864415
-0.525327 -0.123908 0.377184 -0.309541 -0.322890 0.894386
-0.517555 -0.130023 0.378005 0.305101 0.353493 -0.884283
-0.509891 -0.130342 0.378969 0.324481 0.296747 -0.898139
-0.502016 -0.145454 0.379569 0.357669 0.324902 -0.875506
-0.494340 -0.148905 0.380450 -0.195614 -0.488283 0.850479
-0.486703 -0.149361 0.381408 -0.197863 -0.453970 0.868770
-0.479068 -0.149777 0.382366 0.318478 0.420079 -0.849768
-0.471354 -0.160996 0.383046 -0.385994 -0.305694 0.870379
-0.463705 -0.166706 0.383863 -0.324670 -0.370390 0.870288
-0.456081 -0.170382 0.384736 -0.293373 -0.354393 0.887884
-0.448465 -0.175513 0.385567 -0.245018 -0.388718 0.888180
-0.440869 -0.177300 0.386483 -0.065073 -0.464206 0.883334
-0.433274 -0.176988 0.387453 -0.050753 -0.492918 0.868594
-0.425670 -0.173298 0.388518 0.075724 -0.463458 0.882877
-0.418038 -0.167534 0.389638 0.048543 -0.313035 0.948500
-0.410379 -0.159975 0.390814 -0.010701 -0.300112 0.953844
-0.402759 -0.161687 0.391733 -0.032619 -0.304418 0.951980
-0.395129 -0.161643 0.392703 -0.017667 -0.343205 0.939094
-0.387423 -0.155114 0.393855 0.109996 -0.335689 0.935529
-0.379676 -0.147098 0.395054 0.196819 -0.338021 0.920328
-0.371930 -0.141419 0.396185 0.287781 -0.247589 0.925139
0.072947 0.196329 0.461648 0.801494 0.192226 -0.566266
0.078839 0.173354 0.461784 0.793098 0.286684 -0.537409
0.085340 0.156651 0.462165 0.769635 0.343706 -0.538077
0.092263 0.144331 0.462715 0.734664 0.435426 -0.520263
0.099402 0.134208 0.463351 0.700882 0.485193 -0.522831
0.106617 0.125093 0.464024 -0.671624 -0.517336 0.530362
0.113893 0.116766 0.464725 0.627554 0.563585 -0.537165
0.121339 0.110084 0.465492 -0.577626 -0.615066 0.536695
0.128843 0.104084 0.466286 -0.530074 -0.661233 0.530841
0.136468 0.099218 0.467126 0.482254 0.707357 -0.516795
0.144153 0.094988 0.467987 -0.438610 -0.744424 0.503442
0.151902 0.091356 0.468872 -0.394147 -0.783184 0.480905
0.159707 0.088238 0.469781 -0.355431 -0.820016 0.448601
0.167559 0.085573 0.470708 -0.325917 -0.845978 0.422018
0.175424 0.083077 0.471640 -0.308948 -0.864679 0.396082
0.183312 0.080792 0.472581 -0.293498 -0.876478 0.381633
0.191210 0.078610 0.473525 0.269396 0.892413 -0.361973
0.199145 0.076762 0.474482 0.234163 0.910157 -0.341734
0.207119 0.075232 0.475452 0.203710 0.924417 -0.322423
0.215120 0.073907 0.476434 0.186977 0.933326 -0.306501
0.223126 0.072662 0.477419 0.182120 0.940135 -0.288060
0.231132 0.071391 0.478397 0.180111 0.943362 -0.278619
0.239139 0.070178 0.479385 0.173277 0.948396 -0.265554
0.247153 0.069028 0.480369 0.172865 0.952500 -0.250720
0.255155 0.067784 0.481354 -0.153824 -0.960270 0.232851
0.263185 0.066772 0.482344 -0.140638 -0.964269 0.224515
0.271217 0.065782 0.483337 -0.135778 -0.967198 0.214688
0.279259 0.064860 0.484335 -0.136664 -0.969199 0.204882
0.287291 0.063866 0.485329 -0.136178 -0.970184 0.200496
0.295328 0.062943 0.486322 -0.138079 -0.971229 0.194030
0.303362 0.061972 0.487314 0.147602 0.969572 -0.195306
0.311383 0.060951 0.488307 -0.144211 -0.970220 0.194617
0.319406 0.059958 0.489300 0.144752 0.969934 -0.195643
0.327437 0.059013 0.490294 -0.152578 -0.967637 0.200994
0.335439 0.057892 0.491280 0.165919 0.963179 -0.211560
0.343435 0.056760 0.492265 -0.160684 -0.962024 0.220659
0.351446 0.055714 0.493254 -0.158170 -0.960711 0.228071
0.359438 0.054588 0.494238 -0.156337 -0.960677 0.229475
0.367443 0.053518 0.495225 -0.146795 -0.964265 0.220554
0.375457 0.052526 0.496216 -0.138356 -0.968102 0.208894
0.383468 0.051542 0.497207 -0.123408 -0.972646 0.196802
0.391519 0.050749 0.498205 -0.100500 -0.977046 0.187833
0.399594 0.050140 0.499217 -0.086273 -0.981104 0.173181
0.407676 0.049547 0.500224 -0.079561 -0.985956 0.146838
0.415757 0.048959 0.501235 -0.063034 -0.989186 0.132427
0.423880 0.048594 0.502258 -0.050456 -0.991908 0.116506
0.431998 0.048207 0.503277 -0.057790 -0.990523 0.124596
0.440161 0.048028 0.504309 -0.035827 -0.993304 0.109837
0.448359 0.048059 0.505350 -0.016979 -0.995564 0.092539
0.456576 0.048159 0.506396 0.015305 -0.996160 0.086204
0.464868 0.048650 0.507460 -0.033440 0.995930 -0.083694
0.473151 0.049062 0.508522 -0.066335 0.994588 -0.079960
0.481568 0.050153 0.509622 -0.124583 0.989205 -0.077151
0.490077 0.051683 0.510741 -0.197870 0.977931 -0.067058
0.498767 0.054070 0.511907 -0.243918 0.968428 -0.051484
0.507461 0.056429 0.513076 -0.268361 0.962825 -0.030821
0.516249 0.059195 0.514263 0.292308 -0.956315 0.004336
0.525031 0.061882 0.515451 0.335543 -0.942001 -0.006703
0.534046 0.065637 0.516694 -0.385104 0.922722 -0.016715
-0.574567 -0.044019 0.380973 -0.410169 -0.253382 0.876104
-0.566346 -0.059384 0.381583 0.408410 0.244382 -0.879476
-0.558468 -0.063692 0.382459 -0.415736 -0.241079 0.876952
-0.550335 -0.078784 0.383066 -0.419290 -0.258210 0.870358
-0.542328 -0.090524 0.383750 -0.367888 -0.327030 0.870465
-0.534526 -0.094538 0.384628 -0.277432 -0.376324 0.883975
-0.526767 -0.097031 0.385541 -0.253323 -0.365049 0.895861
-0.519002 -0.100150 0.386441 -0.246938 -0.340862 0.907102
-0.511236 -0.103656 0.387328 -0.126184 -0.028438 0.991599
-0.503482 -0.107410 0.388209 0.335293 0.294120 -0.895026
-0.495669 -0.116258 0.388948 -0.338707 -0.282773 0.897395
-0.487882 -0.125505 0.389676 -0.286478 -0.268142 0.919799
-0.480188 -0.128020 0.390584 0.104324 0.247095 -0.963359
-0.472554 -0.123405 0.391681 -0.125943 -0.027991 0.991643
-0.464937 -0.114184 0.392911 -0.125943 -0.027991 0.991643
-0.457105 -0.144665 0.393044 -0.193889 -0.341477 0.919674
-0.449451 -0.147997 0.393919 -0.150876 -0.317077 0.936322
-0.441808 -0.146774 0.394925 0.126031 0.028347 -0.991621
-0.434166 -0.148925 0.395837 0.126031 0.028347 -0.991621
-0.426522 -0.148220 0.396830 0.003601 -0.333684 0.942678
-0.418856 -0.142908 0.397954 0.003601 -0.333684 0.942678
-0.411154 -0.136027 0.399126 0.032718 -0.305453 0.951645
-0.403277 -0.108513 0.400906 0.052772 -0.118461 0.991555
-0.395495 -0.101682 0.402090 0.052772 -0.118461 0.991555
0.080008 0.194090 0.470890 0.798933 0.196135 -0.568540
0.086003 0.172434 0.471034 0.773090 0.250340 -0.582805
0.092515 0.156062 0.471398 0.747698 0.339792 -0.570517
0.099430 0.143832 0.471931 0.712331 0.432926 -0.552412
0.106596 0.134101 0.472565 -0.675199 -0.492549 0.549092
0.113854 0.125469 0.473245 0.635476 0.526822 -0.564473
0.121229 0.118053 0.473970 0.589165 0.578211 -0.564408
0.128710 0.111756 0.474742 -0.546908 -0.616651 0.566244
0.136263 0.106201 0.475545 -0.501249 -0.651935 0.568973
0.143896 0.101433 0.476379 0.463271 0.685163 -0.562079
0.151585 0.097230 0.477235 0.433488 0.719894 -0.542071
0.159312 0.093406 0.478108 -0.398837 -0.762526 0.509394
0.167102 0.090217 0.479012 -0.365573 -0.796024 0.482392
0.174921 0.087288 0.479918 -0.339689 -0.822458 0.456259
0.182789 0.084787 0.480850 -0.316835 -0.846347 0.428151
0.190660 0.082359 0.481781 -0.299032 -0.862193 0.408905
0.198562 0.080239 0.482726 0.265146 0.882237 -0.389045
0.206506 0.078450 0.483683 0.230374 0.902006 -0.365118
0.214486 0.076946 0.484652 0.212353 0.914889 -0.343343
0.222461 0.075442 0.485626 0.199648 0.924077 -0.325917
0.230470 0.074161 0.486605 0.191036 0.930197 -0.313431
0.238468 0.072846 0.487586 0.190279 0.934678 -0.300283
0.246460 0.071511 0.488562 0.185086 0.938937 -0.290070
0.254463 0.070273 0.489542 0.176220 0.943887 -0.279327
0.262481 0.069144 0.490530 -0.161143 -0.949930 0.267704
0.270495 0.068020 0.491517 -0.156185 -0.953697 0.257037
0.278517 0.066929 0.492507 -0.152142 -0.958125 0.242588
0.286543 0.065912 0.493496 -0.149073 -0.960128 0.236497
0.294560 0.064820 0.494481 -0.146113 -0.962793 0.227333
0.302600 0.063884 0.495480 -0.144166 -0.963124 0.227178
0.310622 0.062854 0.496466 -0.145687 -0.962453 0.229042
0.318655 0.061878 0.497463 -0.141812 -0.962721 0.230342
0.326679 0.060902 0.498454 -0.148691 -0.962063 0.228747
0.334700 0.059874 0.499444 -0.157784 -0.959835 0.231994
0.342711 0.058827 0.500429 -0.151272 -0.957232 0.246625
0.350729 0.057816 0.501422 -0.153616 -0.956811 0.246811
0.358744 0.056778 0.502412 -0.159628 -0.955594 0.247706
0.366730 0.055606 0.503389 -0.159272 -0.957513 0.240419
0.374734 0.054525 0.504377 -0.150531 -0.960444 0.234282
0.382743 0.053523 0.505368 -0.135188 -0.963482 0.231145
0.390784 0.052668 0.506366 -0.118951 -0.967996 0.220985
0.398832 0.051889 0.507363 -0.113827 -0.971193 0.209349
0.406875 0.051066 0.508364 -0.101881 -0.973419 0.205122
0.414963 0.050508 0.509374 -0.080836 -0.975493 0.204644
0.423059 0.049988 0.510387 -0.070932 -0.977215 0.200048
0.431187 0.049631 0.511409 -0.055455 -0.979332 0.194508
0.439323 0.049319 0.512435 -0.039812 -0.981591 0.186799
0.447480 0.049131 0.513467 -0.013182 -0.982844 0.183969
0.455717 0.049329 0.514517 -0.003779 -0.979232 0.202709
0.463986 0.049698 0.515583 0.018529 -0.980965 0.193297
0.472290 0.050215 0.516650 0.041829 -0.979091 0.199076
0.480650 0.050995 0.517732 -0.093793 0.975729 -0.197879
0.489144 0.052446 0.518856 -0.150712 0.970448 -0.188456
0.497754 0.054433 0.520005 -0.204939 0.966725 -0.153108
0.506441 0.056766 0.521175 -0.235571 0.962877 -0.131811
0.515177 0.059299 0.522358 -0.265988 0.957609 -0.110613
0.523978 0.062091 0.523555 -0.325280 0.935916 -0.135107
0.533025 0.066002 0.524813 0.386215 -0.910612 0.147047
-0.528648 -0.048545 0.394586 -0.275841 -0.108338 0.955078
-0.521129 -0.033510 0.395995 -0.265447 -0.114087 0.957352
-0.512935 -0.056334 0.396351 0.126161 0.029829 -0.991561
-0.504877 -0.075134 0.396810 0.249210 0.187508 -0.950124
-0.497087 -0.078206 0.397711 -0.126098 -0.029757 0.991571
-0.489314 -0.080091 0.398641 0.133386 0.264387 -0.955148
-0.481555 -0.081323 0.399592 0.133386 0.264387 -0.955148
-0.473866 -0.074404 0.400776 -0.126115 -0.029747 0.991569
-0.466278 -0.047519 0.402549 -0.126115 -0.029747 0.991570
0.087287 0.193952 0.480211 0.768897 0.192123 -0.609825
0.093299 0.172707 0.480338 0.754248 0.249470 -0.607351
0.099816 0.156616 0.480682 0.727735 0.333674 -0.599220
0.106724 0.144453 0.481196 -0.690029 -0.424751 0.586043
0.113905 0.134987 0.481827 0.645739 0.495840 -0.580658
0.121252 0.127176 0.482523 0.604127 0.535654 -0.590004
0.128631 0.119872 0.483244 0.564276 0.578776 -0.588736
0.136171 0.114110 0.484030 -0.511254 -0.623833 0.591144
0.143781 0.109051 0.484846 -0.486818 -0.654602 0.578363
0.151407 0.104234 0.485669 -0.467676 -0.671681 0.574564
0.159048 0.099654 0.486504 0.437343 0.703226 -0.560539
0.166789 0.095960 0.487375 -0.394140 -0.743985 0.539575
0.174570 0.092664 0.488267 -0.374600 -0.768750 0.518360
0.182362 0.089547 0.489166 -0.350241 -0.795381 0.494671
0.190204 0.086837 0.490082 -0.326220 -0.822402 0.466086
0.198068 0.084382 0.491006 -0.299663 -0.847147 0.438798
0.205966 0.082194 0.491946 -0.269159 -0.869833 0.413453
0.213902 0.080333 0.492898 0.239013 0.891393 -0.385086
0.221870 0.078712 0.493865 0.221739 0.904665 -0.363886
0.229847 0.077223 0.494833 0.212721 0.912148 -0.350339
0.237821 0.075696 0.495803 0.206561 0.920561 -0.331512
0.245811 0.074336 0.496776 0.200527 0.926553 -0.318257
0.253794 0.072930 0.497748 0.189792 0.933403 -0.304527
0.261802 0.071713 0.498732 -0.175441 -0.940212 0.291928
0.269819 0.070544 0.499713 -0.176709 -0.942158 0.284803
0.277816 0.069291 0.500694 -0.165368 -0.947670 0.273083
0.285839 0.068221 0.501682 -0.164144 -0.948782 0.269943
0.293852 0.067085 0.502670 -0.154485 -0.953383 0.259221
0.301884 0.066077 0.503659 -0.148448 -0.954884 0.257215
0.309918 0.065109 0.504651 -0.145879 -0.954814 0.258937
0.317953 0.064143 0.505643 -0.148278 -0.954904 0.257240
0.325977 0.063117 0.506633 -0.149184 -0.953868 0.260536
0.334008 0.062160 0.507628 -0.146021 -0.951648 0.270266
0.342045 0.061228 0.508622 -0.151359 -0.950569 0.271124
0.350053 0.060141 0.509606 -0.156375 -0.949099 0.273419
0.358069 0.059103 0.510596 -0.162613 -0.948052 0.273414
0.366058 0.057941 0.511578 -0.166050 -0.948373 0.270213
0.374054 0.056787 0.512560 -0.158381 -0.950841 0.266113
0.382061 0.055740 0.513544 -0.145550 -0.953716 0.263135
0.390081 0.054765 0.514535 -0.131115 -0.956723 0.259787
0.398131 0.053972 0.515535 -0.120559 -0.957480 0.262103
0.406194 0.053251 0.516539 -0.105898 -0.958454 0.264862
0.414281 0.052658 0.517551 -0.094491 -0.958867 0.267666
0.422381 0.052150 0.518564 -0.084213 -0.959730 0.268004
0.430488 0.051679 0.519583 -0.071490 -0.960562 0.268719
0.438635 0.051411 0.520611 -0.053350 -0.959654 0.276075
0.446805 0.051276 0.521645 -0.029375 -0.961788 0.272216
0.455019 0.051332 0.522690 -0.002754 -0.963312 0.268371
0.463283 0.051663 0.523752 0.021113 -0.962783 0.269449
0.471583 0.052150 0.524821 0.053728 -0.959337 0.277104
0.479983 0.053122 0.525918 -0.069688 0.953817 -0.292194
0.488408 0.054216 0.527022 -0.109730 0.956050 -0.271896
0.496964 0.055947 0.528165 -0.158208 0.957126 -0.242651
0.505575 0.057889 0.529317 -0.201152 0.955073 -0.217656
0.514296 0.060333 0.530501 -0.257234 0.940947 -0.220114
0.523161 0.063415 0.531720 -0.333969 0.909238 -0.248498
0.532307 0.067828 0.533013 0.397597 -0.878165 0.265973
0.094956 0.197354 0.489699 0.723769 0.115092 -0.680377
0.100724 0.174174 0.489699 0.724868 0.273266 -0.632370
0.107221 0.158070 0.490010 0.716144 0.327403 -0.616397
0.114122 0.145973 0.490505 0.677378 0.418568 -0.604946
0.121304 0.136605 0.491119 -0.622705 -0.499725 0.602091
0.128695 0.129273 0.491831 -0.580235 -0.543802 0.606306
0.136135 0.122498 0.492559 0.545388 0.581530 -0.603635
0.143653 0.116594 0.493329 0.510168 0.634244 -0.580916
0.151284 0.111709 0.494144 -0.477953 -0.662784 0.576436
0.158923 0.107004 0.494971 0.462311 0.673200 -0.577123
0.166586 0.102611 0.495804 0.427166 0.690378 -0.583872
0.174314 0.098836 0.496670 0.398855 0.720443 -0.567341
0.182077 0.095396 0.497547 -0.383431 -0.745298 0.545446
0.189855 0.092128 0.498433 -0.365972 -0.769428 0.523493
0.197656 0.089122 0.499329 -0.339346 -0.799938 0.494918
0.205510 0.086578 0.500248 -0.307562 -0.829698 0.465841
0.213400 0.084327 0.501183 -0.277813 -0.854729 0.438473
0.221324 0.082376 0.502128 0.248021 0.876303 -0.413010
0.229287 0.080726 0.503091 0.233326 0.890502 -0.390594
0.237242 0.079043 0.504052 0.230059 0.898629 -0.373550
0.245209 0.077454 0.505012 0.221459 0.906946 -0.358337
0.253171 0.075888 0.505979 0.213462 0.915025 -0.342290
0.261158 0.074483 0.506951 0.194430 0.925251 -0.325743
0.269159 0.073220 0.507928 0.183079 0.934431 -0.305484
0.277162 0.071985 0.508908 -0.179859 -0.936613 0.300678
0.285179 0.070816 0.509889 -0.175895 -0.938544 0.296977
0.293177 0.069581 0.510868 -0.165060 -0.944274 0.284782
0.301206 0.068524 0.511857 -0.152582 -0.947178 0.282087
0.309237 0.067526 0.512851 -0.149259 -0.949131 0.277258
0.317271 0.066536 0.513839 -0.147669 -0.947786 0.282658
0.325316 0.065603 0.514834 -0.142361 -0.946991 0.287995
0.333364 0.064721 0.515831 -0.143608 -0.944957 0.293996
0.341393 0.063740 0.516823 -0.149950 -0.942091 0.299966
0.349430 0.062805 0.517817 -0.152684 -0.939153 0.307701
0.357449 0.061749 0.518803 -0.166046 -0.936997 0.307351
0.365444 0.060577 0.519783 -0.171780 -0.938494 0.299536
0.373437 0.059409 0.520761 -0.163777 -0.939073 0.302190
0.381448 0.058359 0.521751 -0.152620 -0.940179 0.304581
0.389474 0.057396 0.522741 -0.138186 -0.942024 0.305772
0.397522 0.056567 0.523738 -0.125908 -0.943067 0.307852
0.405579 0.055819 0.524740 -0.109913 -0.943276 0.313289
0.413677 0.055275 0.525755 -0.095619 -0.942522 0.320169
0.421789 0.054794 0.526771 -0.088146 -0.940347 0.328599
0.429915 0.054406 0.527795 -0.072538 -0.938472 0.337651
0.438074 0.054186 0.528826 -0.060943 -0.937211 0.343397
0.446234 0.053967 0.529856 -0.043442 -0.938392 0.342831
0.454453 0.054041 0.530904 -0.012210 -0.936806 0.349637
0.462726 0.054387 0.531971 0.013259 -0.933743 0.357697
0.471046 0.054975 0.533049 0.042841 -0.937060 0.346530
0.479411 0.055760 0.534137 0.063299 -0.944320 0.322883
0.487812 0.056699 0.535236 -0.105267 0.947428 -0.302158
0.496300 0.058069 0.536360 -0.128644 0.943382 -0.305746
0.504902 0.059944 0.537515 -0.188234 0.934767 -0.301296
0.513652 0.062531 0.538711 -0.255981 0.916626 -0.307036
0.522558 0.065827 0.539951 -0.353406 0.877652 -0.323778
0.531876 0.071043 0.541303 -0.413274 0.859834 -0.299814
0.104075 0.213632 0.499814 -0.702201 -0.089324 0.706354
0.108305 0.176933 0.499121 0.705859 0.242769 -0.665452
0.114666 0.159872 0.499363 0.702723 0.311868 -0.639468
0.121554 0.147743 0.499831 -0.653611 -0.416282 0.632062
0.128805 0.139045 0.500465 -0.591178 -0.501948 0.631314
0.136211 0.131891 0.501166 -0.558265 -0.543971 0.626447
0.143674 0.125341 0.501899 0.539243 0.572452 -0.617669
0.151158 0.119173 0.502648 0.504138 0.622901 -0.598197
0.158795 0.114344 0.503455 -0.453813 -0.663402 0.594939
0.166521 0.110349 0.504309 0.431669 0.677344 -0.595706
0.174205 0.106126 0.505147 0.424837 0.679582 -0.598065
0.181902 0.102082 0.505992 0.409242 0.698650 -0.586863
0.189638 0.098423 0.506854 0.394325 0.718413 -0.573054
0.197386 0.094967 0.507726 -0.377578 -0.736941 0.560672
0.205170 0.091836 0.508612 -0.349046 -0.768154 0.536756
0.213003 0.089117 0.509519 -0.317551 -0.800665 0.508032
0.220885 0.086796 0.510448 -0.287354 -0.828712 0.480274
0.228799 0.084746 0.511384 -0.265520 -0.850306 0.454400
0.236733 0.082849 0.512331 0.253396 0.866423 -0.430235
0.244679 0.081104 0.513286 0.243233 0.877184 -0.413988
0.252629 0.079394 0.514243 0.234774 0.890211 -0.390392
0.260583 0.077770 0.515201 0.225592 0.900615 -0.371483
0.268544 0.076168 0.516160 0.208403 0.912382 -0.352318
0.276539 0.074857 0.517136 0.188973 0.924179 -0.331936
0.284552 0.073639 0.518115 0.186046 0.927471 -0.324321
0.292546 0.072350 0.519093 0.182143 0.929694 -0.320144
0.300567 0.071235 0.520076 -0.161133 -0.936318 0.312003
0.308594 0.070151 0.521062 -0.151774 -0.939007 0.308593
0.316645 0.069250 0.522059 -0.144287 -0.939279 0.311346
0.324685 0.068305 0.523050 -0.139417 -0.938706 0.315269
0.332752 0.067498 0.524053 -0.137923 -0.935608 0.324984
0.340808 0.066645 0.525053 -0.142176 -0.933660 0.328733
0.348856 0.065749 0.526045 -0.152410 -0.931286 0.330873
0.356883 0.064738 0.527034 -0.173831 -0.929429 0.325492
0.364860 0.063440 0.528007 -0.176842 -0.928359 0.326918
0.372872 0.062340 0.528991 -0.162223 -0.928029 0.335330
0.380888 0.061306 0.529982 -0.153847 -0.928629 0.337610
0.388919 0.060348 0.530971 -0.139729 -0.929810 0.340484
0.396978 0.059568 0.531971 -0.124378 -0.928480 0.349936
0.405061 0.058918 0.532978 -0.107665 -0.926487 0.360596
0.413175 0.058422 0.533995 -0.093923 -0.923443 0.372064
0.421307 0.058056 0.535019 -0.083584 -0.919246 0.384709
0.429458 0.057765 0.536049 -0.070729 -0.916536 0.393648
0.437640 0.057635 0.537089 -0.065503 -0.915217 0.397601
0.445817 0.057477 0.538127 -0.047656 -0.911607 0.408292
0.454056 0.057640 0.539180 -0.017233 -0.908740 0.417008
0.462348 0.058078 0.540251 -0.004195 -0.911539 0.411193
0.470623 0.058387 0.541317 0.004039 -0.919897 0.392140
0.478924 0.058825 0.542390 0.031154 -0.927291 0.373043
0.487296 0.059604 0.543483 -0.078952 0.929023 -0.361501
0.495781 0.060925 0.544606 -0.131980 0.927322 -0.350222
0.504368 0.062720 0.545761 -0.177868 0.910694 -0.372826
0.513136 0.065378 0.546967 0.242809 -0.894090 0.376361
0.522065 0.068768 0.548216 -0.356022 0.857745 -0.370839
0.116276 0.183048 0.508728 -0.676139 -0.171611 0.716510
0.122341 0.163541 0.508813 -0.645129 -0.322133 0.692849
0.129184 0.151163 0.509249 -0.619226 -0.395331 0.678434
0.136452 0.142643 0.509877 -0.564025 -0.480680 0.671434
0.143844 0.135395 0.510561 -0.537711 -0.516690 0.666258
0.151279 0.128670 0.511276 -0.520941 -0.542463 0.659056
0.158770 0.122572 0.512016 0.480953 0.596130 -0.642895
0.166414 0.117797 0.512820 0.437971 0.662415 -0.607773
0.174135 0.113765 0.513663 0.425867 0.673735 -0.603919
0.181838 0.109668 0.514502 0.418546 0.674206 -0.608494
0.189553 0.105766 0.515349 0.400284 0.680332 -0.613938
0.197297 0.102152 0.516209 0.392268 0.689061 -0.609361
0.205026 0.098511 0.517065 0.381659 0.700976 -0.602469
0.212790 0.095202 0.517937 0.356753 0.727281 -0.586336
0.220599 0.092317 0.518835 -0.325363 -0.761533 0.560542
0.228463 0.089861 0.519750 -0.300754 -0.789219 0.535426
0.236350 0.087602 0.520675 -0.281955 -0.813476 0.508682
0.244271 0.085589 0.521615 -0.276287 -0.829544 0.485307
0.252160 0.083437 0.522546 -0.270596 -0.847838 0.456013
0.260083 0.081541 0.523492 0.249603 0.869785 -0.425643
0.268029 0.079835 0.524444 0.237534 0.881907 -0.407206
0.275983 0.078189 0.525402 0.214471 0.896999 -0.386516
0.283979 0.076837 0.526371 0.196666 0.908095 -0.369711
0.291979 0.075547 0.527346 0.191269 0.913828 -0.358238
0.299986 0.074312 0.528326 -0.173740 -0.920746 0.349344
0.308005 0.073170 0.529306 -0.157288 -0.925860 0.343576
0.316053 0.072211 0.530299 -0.145890 -0.927454 0.344304
0.324111 0.071340 0.531296 -0.134118 -0.926750 0.350922
0.332191 0.070591 0.532300 -0.135291 -0.926363 0.351493
0.340245 0.069712 0.533296 -0.142863 -0.926535 0.348028
0.348302 0.068824 0.534294 -0.154243 -0.925385 0.346226
0.356320 0.067731 0.535279 -0.170524 -0.920839 0.350681
0.364336 0.066630 0.536260 -0.165569 -0.919498 0.356527
0.372362 0.065600 0.537251 -0.160652 -0.917895 0.362849
0.380383 0.064580 0.538235 -0.154903 -0.916985 0.367619
0.388424 0.063639 0.539230 -0.137304 -0.917912 0.372269
0.396504 0.062943 0.540236 -0.117058 -0.916789 0.381832
0.404615 0.062408 0.541251 -0.099246 -0.911170 0.399899
0.412757 0.062054 0.542275 -0.084442 -0.907841 0.410723
0.420921 0.061826 0.543311 -0.077238 -0.903529 0.421509
0.429090 0.061624 0.544345 -0.071573 -0.901854 0.426071
0.437270 0.061452 0.545380 -0.062693 -0.901359 0.428512
0.445492 0.061499 0.546431 -0.040762 -0.897844 0.438423
0.453747 0.061725 0.547494 -0.024269 -0.898456 0.438392
0.462020 0.062007 0.548557 -0.024004 -0.902233 0.430579
0.470287 0.062262 0.549621 -0.018486 -0.904825 0.425382
0.478572 0.062592 0.550691 0.006611 -0.908006 0.418905
0.486927 0.063242 0.551777 0.052492 -0.912829 0.404954
0.495374 0.064345 0.552892 -0.119056 0.902878 -0.413083
0.504024 0.066439 0.554071 0.189221 -0.885452 0.424465
0.512785 0.069043 0.555279 0.237691 -0.869835 0.432308
0.521788 0.072770 0.556560 -0.302066 0.848230 -0.435044
0.125337 0.198376 0.518831 0.679839 0.100450 -0.726450
0.130364 0.170085 0.518428 -0.617635 -0.265104 0.740437
0.137080 0.156682 0.518790 -0.591935 -0.353343 0.724404
0.144289 0.147716 0.519379 -0.532781 -0.438569 0.723741
0.151685 0.140510 0.520055 -0.503619 -0.473386 0.722685
0.159107 0.133700 0.520752 -0.489678 -0.493569 0.718753
0.166575 0.127374 0.521469 -0.476193 -0.536956 0.696361
0.174088 0.121608 0.522216 -0.437776 -0.604410 0.665613
0.181814 0.117584 0.523053 0.406167 0.632340 -0.659678
0.189571 0.113883 0.523908 0.395622 0.641230 -0.657501
0.197303 0.110092 0.524753 0.388844 0.648055 -0.654848
0.205048 0.106483 0.525608 0.385467 0.652765 -0.652160
0.212783 0.102864 0.526464 -0.379806 -0.655406 0.652833
0.220521 0.099358 0.527324 -0.360376 -0.675490 0.643306
0.228323 0.096347 0.528207 0.336805 0.707849 -0.620897
0.236143 0.093556 0.529100 0.318710 0.740678 -0.591457
0.244004 0.091096 0.530014 -0.307861 -0.769037 0.560182
0.251852 0.088587 0.530926 -0.309669 -0.790181 0.528884
0.259707 0.086176 0.531836 -0.288918 -0.814662 0.502844
0.267613 0.084132 0.532772 -0.266621 -0.839451 0.473535
0.275531 0.082221 0.533713 0.246080 0.858098 -0.450681
0.283498 0.080632 0.534669 0.222440 0.876376 -0.427183
0.291469 0.079116 0.535632 0.207956 0.889266 -0.407381
0.299468 0.077808 0.536604 0.193179 0.899420 -0.392078
0.307480 0.076571 0.537580 -0.166012 -0.907927 0.384849
0.315527 0.075590 0.538574 -0.146907 -0.913396 0.379640
0.323597 0.074759 0.539574 -0.136573 -0.916151 0.376849
0.331674 0.073951 0.540573 -0.141887 -0.916181 0.374807
0.339730 0.073045 0.541567 -0.145723 -0.914562 0.377282
0.347787 0.072149 0.542566 -0.152657 -0.911834 0.381123
0.355835 0.071194 0.543559 -0.164540 -0.908833 0.383341
0.363843 0.070039 0.544538 -0.163611 -0.906264 0.389765
0.371888 0.069070 0.545526 -0.154095 -0.905826 0.394632
0.379933 0.068139 0.546521 -0.150797 -0.906008 0.395488
0.387980 0.067233 0.547515 -0.133748 -0.906221 0.401092
0.396076 0.066582 0.548523 -0.104896 -0.905802 0.410511
0.404235 0.066295 0.549553 -0.087056 -0.903556 0.419532
0.412389 0.065995 0.550584 -0.077878 -0.896088 0.436992
0.420581 0.065864 0.551626 -0.070891 -0.892932 0.444574
0.428768 0.065724 0.552667 -0.072236 -0.892310 0.445606
0.436952 0.065557 0.553706 -0.058669 -0.890641 0.450907
0.445186 0.065639 0.554760 -0.038678 -0.891119 0.452119
0.453450 0.065858 0.555821 -0.031426 -0.893182 0.448595
0.461714 0.066069 0.556883 -0.030933 -0.893938 0.447123
0.469983 0.066297 0.557949 -0.024527 -0.894965 0.445462
0.478271 0.066623 0.559019 -0.005901 -0.897349 0.441282
0.486602 0.067118 0.560101 0.046413 -0.894591 0.444469
0.495114 0.068540 0.561242 0.128639 -0.877923 0.461197
0.503794 0.070745 0.562429 0.177823 -0.874673 0.450916
0.512536 0.073229 0.563639 0.258242 -0.845591 0.467211
0.521695 0.077698 0.564971 -0.405707 0.750150 -0.522185
0.138990 0.181527 0.528330 -0.627959 -0.174840 0.758353
0.145296 0.164745 0.528486 -0.563753 -0.263438 0.782804
0.152458 0.155378 0.529039 0.501522 0.393464 -0.770495
0.159834 0.147976 0.529696 0.481957 0.434549 -0.760844
0.167254 0.141099 0.530379 0.479827 0.446096 -0.755489
0.174613 0.133941 0.531043 0.470650 0.466273 -0.749052
0.182093 0.127830 0.531760 -0.417982 -0.530610 0.737390
0.189784 0.123542 0.532581 -0.376320 -0.581507 0.721272
0.197507 0.119527 0.533408 -0.370751 -0.597966 0.710619
0.205239 0.115714 0.534249 0.369030 0.600318 -0.709532
0.213011 0.112246 0.535108 -0.366140 -0.608103 0.704381
0.220743 0.108578 0.535957 0.373122 0.603426 -0.704739
0.228452 0.104816 0.536797 -0.359398 -0.631919 0.686667
0.236176 0.101230 0.537644 -0.361229 -0.644074 0.674301
0.243936 0.097974 0.538508 -0.350593 -0.680089 0.643867
0.251711 0.094870 0.539380 0.342942 0.712889 -0.611703
0.259518 0.092071 0.540271 0.327635 0.741393 -0.585655
0.267352 0.089482 0.541174 -0.304613 -0.772024 0.557844
0.275226 0.087219 0.542089 -0.283130 -0.802406 0.525340
0.283126 0.085165 0.543020 0.259004 0.826363 -0.500040
0.291064 0.083393 0.543967 0.238782 0.848543 -0.472186
0.299026 0.081795 0.544923 0.214424 0.865271 -0.453131
0.307034 0.080491 0.545895 0.177802 0.880958 -0.438520
0.315053 0.079309 0.546877 -0.158912 -0.890598 0.426125
0.323112 0.078358 0.547867 -0.142163 -0.898235 0.415888
0.331192 0.077554 0.548870 -0.138649 -0.900591 0.411961
0.339274 0.076759 0.549873 -0.142818 -0.902323 0.406715
0.347342 0.075897 0.550871 -0.151704 -0.900335 0.407900
0.355390 0.074924 0.551860 -0.160088 -0.897068 0.411875
0.363445 0.073996 0.552855 -0.157268 -0.891465 0.424920
0.371491 0.073001 0.553842 -0.159115 -0.890425 0.426410
0.379527 0.071992 0.554832 -0.151587 -0.891562 0.426777
0.387598 0.071167 0.555831 -0.130042 -0.891813 0.433311
0.395699 0.070541 0.556843 -0.102259 -0.893308 0.437657
0.403848 0.070169 0.557869 -0.073678 -0.890910 0.448163
0.412081 0.070252 0.558923 -0.059795 -0.887124 0.457642
0.420285 0.070178 0.559971 -0.070644 -0.885188 0.459840
0.428480 0.070015 0.561011 -0.069496 -0.881054 0.467883
0.436697 0.069995 0.562060 -0.056092 -0.878181 0.475029
0.444931 0.070041 0.563112 -0.045875 -0.877873 0.476692
0.453184 0.070176 0.564174 -0.037274 -0.878451 0.476377
0.461460 0.070421 0.565239 -0.033360 -0.876869 0.479570
0.469731 0.070636 0.566307 -0.029168 -0.875394 0.482529
0.478022 0.070926 0.567375 -0.009921 -0.875806 0.482561
0.486384 0.071557 0.568469 0.057704 -0.873113 0.484091
0.494945 0.073176 0.569625 0.121974 -0.871734 0.474556
0.503562 0.075056 0.570800 0.175113 -0.864286 0.471535
0.512417 0.078046 0.572046 -0.282158 0.818378 -0.500644
0.522533 0.087207 0.573698 0.468472 -0.714140 0.520133
0.154206 0.178232 0.538521 -0.541958 -0.251618 0.801855
0.160932 0.165291 0.538860 -0.516788 -0.299642 0.801963
0.168127 0.156399 0.539420 0.484031 0.394131 -0.781265
0.175514 0.149202 0.540073 0.469843 0.422673 -0.774980
0.182919 0.142375 0.540745 0.453450 0.440052 -0.775073
0.190380 0.136111 0.541444 -0.414843 -0.482397 0.771491
0.198014 0.131272 0.542229 -0.391826 -0.531719 0.750831
0.205685 0.126855 0.543030 -0.381541 -0.558689 0.736406
0.213398 0.122813 0.543854 -0.369814 -0.581251 0.724835
0.221176 0.119344 0.544708 -0.350964 -0.598335 0.720291
0.228977 0.116112 0.545575 0.378359 0.584884 -0.717465
0.236549 0.111328 0.546349 0.398864 0.573527 -0.715524
0.244188 0.107129 0.547157 0.384588 0.592570 -0.707780
0.251861 0.103216 0.547981 -0.374331 -0.617526 0.691765
0.259578 0.099703 0.548826 -0.360060 -0.647990 0.671167
0.267325 0.096457 0.549688 -0.349660 -0.679925 0.644546
0.275094 0.093421 0.550560 0.325839 0.714121 -0.619565
0.282942 0.090947 0.551460 -0.301029 -0.749881 0.589117
0.290809 0.088648 0.552373 -0.275941 -0.779536 0.562299
0.298740 0.086773 0.553312 0.243098 0.809488 -0.534447
0.306716 0.085241 0.554270 0.215356 0.829799 -0.514834
0.314721 0.083903 0.555243 0.179326 0.847021 -0.500397
0.322746 0.082714 0.556218 -0.161300 -0.858089 0.487509
0.330800 0.081718 0.557210 -0.153565 -0.868855 0.470646
0.338849 0.080683 0.558199 -0.148170 -0.875496 0.459949
0.346928 0.079846 0.559196 -0.146509 -0.877996 0.455695
0.354991 0.078918 0.560193 -0.144547 -0.875572 0.460956
0.363079 0.078141 0.561195 -0.144999 -0.872825 0.465995
0.371145 0.077257 0.562190 -0.154432 -0.869537 0.469102
0.379197 0.076283 0.563179 -0.146941 -0.867806 0.474680
0.387279 0.075501 0.564181 -0.125172 -0.867178 0.482010
0.395404 0.074960 0.565199 -0.098546 -0.865706 0.490756
0.403584 0.074718 0.566238 -0.070631 -0.867030 0.493225
0.411791 0.074616 0.567284 -0.063444 -0.870257 0.488496
0.420013 0.074600 0.568334 -0.060751 -0.867166 0.494299
0.428247 0.074642 0.569391 -0.056742 -0.863759 0.500701
0.436491 0.074701 0.570448 -0.051123 -0.856050 0.514359
0.444750 0.074858 0.571508 -0.045294 -0.850894 0.523382
0.453015 0.075028 0.572573 -0.038001 -0.846812 0.530532
0.461311 0.075322 0.573647 -0.032803 -0.845856 0.532402
0.469614 0.075665 0.574722 -0.032422 -0.843232 0.536571
0.477912 0.075945 0.575797 -0.017445 -0.842424 0.538533
0.486265 0.076501 0.576885 0.042194 -0.850368 0.524493
0.494768 0.077795 0.578026 -0.103545 0.855950 -0.506585
0.503420 0.079799 0.579215 0.208366 -0.831319 0.515260
0.512485 0.083834 0.580534 -0.428911 0.735229 -0.524855
0.170045 0.180023 0.548998 -0.495089 -0.261929 0.828420
0.176692 0.166715 0.549287 -0.496485 -0.291891 0.817497
0.183923 0.158299 0.549859 0.456862 0.383466 -0.802640
0.191306 0.151214 0.550507 0.446141 0.427330 -0.786350
0.198789 0.145083 0.551207 0.433892 0.459015 -0.775270
0.206248 0.138909 0.551899 -0.423130 -0.492391 0.760600
0.213841 0.133843 0.552659 -0.394757 -0.538637 0.744337
0.221520 0.129524 0.553458 -0.369097 -0.572959 0.731769
0.229247 0.125630 0.554287 -0.363014 -0.586710 0.723873
0.237005 0.122059 0.555128 0.380369 0.574960 -0.724390
0.244704 0.118121 0.555948 -0.382309 -0.560894 0.734328
0.252347 0.113881 0.556750 -0.386060 -0.557302 0.735100
0.259983 0.109669 0.557549 -0.373097 -0.574806 0.728284
0.267623 0.105591 0.558353 -0.373029 -0.585785 0.719517
0.275322 0.101997 0.559189 -0.359966 -0.608048 0.707603
0.283047 0.098608 0.560035 -0.339361 -0.642497 0.687046
0.290837 0.095728 0.560913 -0.319315 -0.677645 0.662447
0.298663 0.093139 0.561805 0.288818 0.713092 -0.638814
0.306576 0.091116 0.562730 0.248265 0.749095 -0.614184
0.314561 0.089602 0.563692 0.219570 0.776076 -0.591181
0.322570 0.088248 0.564659 0.183731 0.799088 -0.572451
0.330585 0.086967 0.565629 0.176528 0.810229 -0.558898
0.338626 0.085823 0.566611 0.163750 0.820592 -0.547554
0.346678 0.084773 0.567598 0.154434 0.826736 -0.540978
0.354759 0.083915 0.568596 -0.144244 -0.830900 0.537400
0.362841 0.083066 0.569599 -0.146239 -0.831114 0.536529
0.370918 0.082194 0.570594 -0.148256 -0.829019 0.539211
0.379001 0.081354 0.571596 -0.138662 -0.826015 0.546326
0.387107 0.080656 0.572604 -0.120205 -0.826204 0.550398
0.395254 0.080190 0.573628 -0.096667 -0.824553 0.557466
0.403438 0.079937 0.574663 -0.080802 -0.825462 0.558644
0.411642 0.079788 0.575707 -0.069662 -0.829175 0.554631
0.419877 0.079789 0.576763 -0.061503 -0.830078 0.554245
0.428120 0.079816 0.577817 -0.048634 -0.825575 0.562193
0.436424 0.080186 0.578896 -0.038010 -0.820549 0.570312
0.444725 0.080507 0.579972 -0.039927 -0.812066 0.582199
0.453034 0.080868 0.581051 -0.040761 -0.805105 0.591731
0.461325 0.081109 0.582123 -0.039820 -0.806326 0.590129
0.469648 0.081482 0.583208 -0.034199 -0.802736 0.595353
0.477983 0.081922 0.584294 -0.028990 -0.805819 0.591452
0.486311 0.082308 0.585373 0.005749 -0.817120 0.576439
0.494762 0.083281 0.586498 0.082283 -0.817926 0.569409
0.503443 0.085392 0.587697 -0.247609 0.775797 -0.580370
0.512818 0.090924 0.589133 -0.418496 0.736963 -0.530798
0.186365 0.185404 0.559704 -0.475650 -0.231619 0.848593
0.192803 0.170763 0.559886 -0.474941 -0.252971 0.842874
0.199837 0.160984 0.560359 0.461820 0.378772 -0.802032
0.207185 0.153766 0.560980 0.427667 0.410118 -0.805546
0.214648 0.147564 0.561665 0.416242 0.452216 -0.788824
0.222162 0.141871 0.562379 -0.396489 -0.493267 0.774264
0.229808 0.137271 0.563158 -0.362596 -0.531181 0.765748
0.237553 0.133429 0.563980 -0.346733 -0.553106 0.757529
0.245288 0.129624 0.564804 -0.356908 -0.555276 0.751189
0.252997 0.125690 0.565620 0.368876 0.545931 -0.752256
0.260668 0.121611 0.566428 0.373982 0.541607 -0.752861
0.268300 0.117334 0.567218 0.372971 0.542367 -0.752815
0.275952 0.113274 0.568017 0.368731 0.546098 -0.752206
0.283574 0.109112 0.568812 0.365454 0.555440 -0.746947
0.291249 0.105352 0.569634 0.345190 0.580359 -0.737582
0.298987 0.102079 0.570478 0.321343 0.611404 -0.723135
0.306799 0.099329 0.571362 -0.291280 -0.644456 0.706988
0.314671 0.097020 0.572268 -0.259789 -0.678886 0.686748
0.322615 0.095202 0.573204 -0.234167 -0.708826 0.665380
0.330605 0.093683 0.574162 -0.194423 -0.738722 0.645360
0.338612 0.092280 0.575128 -0.182077 -0.753754 0.631430
0.346655 0.091118 0.576107 0.166947 0.765839 -0.620982
0.354716 0.090062 0.577094 0.154437 0.770630 -0.618287
0.362812 0.089231 0.578097 0.147524 0.773558 -0.616316
0.370904 0.088385 0.579097 0.145173 0.773780 -0.616595
0.379010 0.087628 0.580100 0.138126 0.775560 -0.615977
0.387125 0.086930 0.581109 0.118695 0.772811 -0.623438
0.395304 0.086597 0.582146 -0.098783 -0.775462 0.623618
0.403506 0.086366 0.583187 -0.093262 -0.774563 0.625584
0.411698 0.086099 0.584224 -0.082209 -0.771338 0.631094
0.419935 0.086051 0.585278 -0.064936 -0.768660 0.636352
0.428214 0.086247 0.586348 -0.047867 -0.768764 0.637739
0.436512 0.086519 0.587423 -0.036975 -0.769286 0.637834
0.444865 0.087075 0.588516 -0.028150 -0.767239 0.640743
0.453226 0.087653 0.589613 -0.042400 -0.767041 0.640196
0.461532 0.087906 0.590691 -0.045635 -0.764754 0.642705
0.469882 0.088368 0.591782 -0.044166 -0.768646 0.638148
0.478187 0.088603 0.592855 -0.052292 -0.774376 0.630561
0.486494 0.088816 0.593928 -0.012356 -0.772448 0.634958
0.494974 0.089904 0.595066 0.086319 -0.760214 0.643913
0.503788 0.092636 0.596313 0.254824 -0.702877 0.664100
0.209433 0.178439 0.570727 0.442144 0.264183 -0.857156
0.216162 0.166535 0.571047 -0.436384 -0.300102 0.848238
0.223329 0.158093 0.571585 -0.426324 -0.395688 0.813436
0.230724 0.151454 0.572230 -0.393112 -0.452503 0.800440
0.238323 0.146436 0.572974 -0.359893 -0.480975 0.799463
0.245991 0.142000 0.573758 -0.356480 -0.507291 0.784588
0.253659 0.137650 0.574543 -0.360295 -0.522914 0.772494
0.261334 0.133447 0.575334 -0.362822 -0.532006 0.765068
0.269005 0.129282 0.576130 -0.360935 -0.535761 0.763338
0.276699 0.125394 0.576940 0.357295 0.534432 -0.765978
0.284382 0.121461 0.577744 0.361922 0.528281 -0.768070
0.292021 0.117351 0.578537 0.359398 0.527944 -0.769486
0.299669 0.113368 0.579339 -0.339207 -0.549295 0.763685
0.307379 0.109862 0.580166 0.319941 0.567177 -0.758912
0.315167 0.106882 0.581031 -0.293411 -0.597183 0.746513
0.323018 0.104372 0.581921 -0.267904 -0.627119 0.731402
0.330923 0.102228 0.582841 -0.248073 -0.648988 0.719218
0.338871 0.100401 0.583774 -0.205033 -0.677931 0.705954
0.346870 0.098876 0.584730 -0.180419 -0.692506 0.698487
0.354938 0.097812 0.585719 -0.161088 -0.703692 0.692003
0.363015 0.096805 0.586710 -0.155027 -0.708362 0.688615
0.371113 0.095918 0.587708 -0.149622 -0.714402 0.683552
0.379212 0.095041 0.588705 -0.136775 -0.720218 0.680132
0.387382 0.094578 0.589732 0.120289 0.727057 -0.675958
0.395538 0.094052 0.590755 0.108158 0.731925 -0.672747
0.403764 0.093910 0.591803 0.088846 0.727872 -0.679933
0.412038 0.094007 0.592869 -0.079437 -0.724949 0.684207
0.420312 0.094119 0.593935 -0.074237 -0.721851 0.688056
0.428597 0.094260 0.595004 -0.067178 -0.720572 0.690119
0.436907 0.094531 0.596086 -0.054354 -0.724324 0.687314
0.445242 0.094899 0.597172 -0.049124 -0.728453 0.683333
0.453571 0.095236 0.598255 -0.052453 -0.729613 0.681846
0.461917 0.095644 0.599344 -0.052654 -0.731778 0.679506
0.470230 0.095865 0.600420 -0.062468 -0.734943 0.675246
0.478539 0.096050 0.601495 -0.051638 -0.733003 0.678263
0.486935 0.096676 0.602602 -0.000701 -0.719916 0.694061
0.495500 0.098110 0.603766 0.124833 -0.692121 0.710904
0.504669 0.102567 0.605146 0.118582 -0.688787 0.715200
0.228291 0.201929 0.582635 -0.437588 -0.140987 0.888054
0.233010 0.175551 0.581996 -0.417426 -0.306303 0.855532
0.239910 0.165278 0.582392 -0.404387 -0.316437 0.858102
0.247177 0.157799 0.582974 -0.395946 -0.409231 0.822045
0.254705 0.152285 0.583676 -0.382316 -0.457382 0.802893
0.262277 0.147196 0.584409 -0.376333 -0.482240 0.791087
0.269886 0.142468 0.585164 -0.364686 -0.502856 0.783671
0.277524 0.138041 0.585935 -0.352776 -0.519169 0.778468
0.285234 0.134170 0.586742 -0.333397 -0.510432 0.792657
0.292934 0.130290 0.587547 -0.337666 -0.510013 0.791119
0.300620 0.126412 0.588352 -0.341391 -0.504673 0.792942
0.308247 0.122235 0.589131 0.338191 0.527621 -0.779258
0.315927 0.118456 0.589941 0.311036 0.555110 -0.771434
0.323675 0.115173 0.590778 0.279454 0.585071 -0.761313
0.331546 0.112705 0.591672 -0.265486 -0.570823 0.776967
0.339467 0.110605 0.592590 -0.244664 -0.592143 0.767793
0.347432 0.108768 0.593527 0.199183 0.617096 -0.761261
0.355441 0.107251 0.594482 0.176661 0.630056 -0.756188
0.363522 0.106181 0.595469 0.163122 0.638393 -0.752227
0.371597 0.105067 0.596453 0.162474 0.644325 -0.747294
0.379679 0.104000 0.597439 -0.149251 -0.654810 0.740910
0.387785 0.103104 0.598439 -0.135241 -0.668522 0.731293
0.395953 0.102551 0.599463 -0.106485 -0.679073 0.726306
0.404206 0.102461 0.600517 0.087700 0.685095 -0.723155
0.412457 0.102379 0.601576 0.077699 0.687793 -0.721736
0.420765 0.102600 0.602652 0.067063 0.692715 -0.718087
0.429096 0.102911 0.603737 0.066161 0.691696 -0.719151
0.437406 0.103114 0.604814 0.062360 0.694140 -0.717134
0.445757 0.103512 0.605905 -0.057230 -0.694585 0.717130
0.454111 0.103894 0.606992 0.060153 0.694431 -0.717040
0.462438 0.104145 0.608077 0.067569 0.698834 -0.712085
0.470769 0.104383 0.609155 0.068269 0.697323 -0.713499
0.479105 0.104638 0.610240 -0.037212 -0.688746 0.724047
0.487611 0.105739 0.611385 0.027760 -0.677466 0.735030
0.496344 0.107977 0.612612 0.188171 -0.614143 0.766433
0.257029 0.175836 0.593466 -0.387087 -0.319437 0.864941
0.264061 0.166763 0.593925 0.394107 0.343077 -0.852630
0.271421 0.160123 0.594543 -0.372703 -0.393689 0.840298
0.278918 0.154548 0.595233 0.359960 0.423944 -0.831084
0.286497 0.149622 0.595968 0.350759 0.448880 -0.821873
0.294101 0.144937 0.596717 0.343086 0.470034 -0.813240
0.301750 0.140658 0.597486 0.329488 0.486187 -0.809358
0.309451 0.136783 0.598288 0.320722 0.487213 -0.812257
0.317197 0.133274 0.599109 -0.315259 -0.483674 0.816500
0.324900 0.129556 0.599918 -0.306695 -0.487630 0.817407
0.332615 0.125982 0.600736 -0.294001 -0.507239 0.810107
0.340419 0.123010 0.601594 -0.249906 -0.543555 0.801309
0.348335 0.120760 0.602500 -0.237270 -0.553800 0.798128
0.356324 0.119007 0.603443 -0.202824 -0.560506 0.802929
0.364371 0.117592 0.604405 0.193711 0.569712 -0.798689
